# .PCD v0.7 - Point Cloud Data file format
VERSION 0.7
FIELDS x y z
SIZE 4 4 4
TYPE F F F
COUNT 1 1 1
WIDTH 1309
HEIGHT 1
VIEWPOINT 0 0 0 1 0 0 0
POINTS 1309
DATA ascii
-0.028462667 0.13743475 -0.013478028
-0.027641872 0.13712649 -0.013216728
0.028739762 0.13736987 -0.013606412
-0.033981584 0.13857935 -0.013059908
0.028950373 0.13819908 -0.013326737
0.029046841 0.13972378 -0.013544276
-0.03293594 0.14066039 -0.013671654
0.029085498 0.14039788 -0.013442607
-0.032743942 0.14150561 -0.013017085
0.029330349 0.14150956 -0.013384218
-0.032819334 0.14228019 -0.013612781
0.029582104 0.14222588 -0.013673324
0.029943759 0.14330035 -0.013402726
0.030140378 0.14396468 -0.013079726
-0.033496469 0.14445095 -0.013399508
0.030834671 0.14468026 -0.013648573
0.031282749 0.14461339 -0.013768991
-0.032204904 0.1459095 -0.013881564
0.031670451 0.14563036 -0.013237868
0.032008104 0.14532262 -0.013580274
-0.032042928 0.14624886 -0.013443192
-0.031927485 0.14653286 -0.013220288
0.032404527 0.14624794 -0.01357361
-0.031539921 0.14740771 -0.013603894
0.032179117 0.14738655 -0.013548724
-0.031774081 0.14865384 -0.013325329
0.031532746 0.14856991 -0.013516299
-0.031948771 0.14910118 -0.013148801
0.03059851 0.14948499 -0.013937855
0.031268965 0.14942992 -0.013182757
-0.032435834 0.15061635 -0.013392887
-0.027434938 0.15060511 -0.013158921
0.030533569 0.15050256 -0.0135163
0.031098191 0.1500005 -0.013123266
-0.032072488 0.15153895 -0.013493061
-0.031398535 0.15189745 -0.013949297
-0.029402787 0.1515142 -0.013554345
-0.028496722 0.1515677 -0.013794293
-0.027493743 0.15135922 -0.013897646
-0.026521381 0.15160207 -0.013459314
0.030036945 0.15121865 -0.01362758
-0.026127659 0.15225649 -0.013549808
0.02950519 0.15252531 -0.013626139
-0.025807863 0.15319043 -0.01375338
0.02949826 0.15310286 -0.013137585
-0.02544667 0.15478118 -0.013482668
0.028813245 0.15435967 -0.013391791
-0.025319461 0.15576033 -0.013004985
0.028465971 0.15540317 -0.013344064
-0.025084941 0.15608123 -0.013901812
0.027826013 0.15672177 -0.013980151
0.028080756 0.15624079 -0.013638225
-0.024708755 0.15770307 -0.013430733
0.027755087 0.15755039 -0.013452241
-0.024247348 0.15887032 -0.013963116
0.027508397 0.15838131 -0.013564697
-0.024073802 0.15967254 -0.013242908
-0.023963302 0.1597829 -0.013580684
0.027340788 0.15937939 -0.01326621
-0.023822019 0.16006592 -0.013652613
0.026752984 0.1606296 -0.013648788
-0.023358002 0.1613538 -0.013197264
-0.022972057 0.1618773 -0.013871826
0.026470233 0.16142121 -0.013926244
0.026356304 0.16218963 -0.013473297
-0.022063199 0.16382459 -0.013629604
-0.021924634 0.16385873 -0.013919784
0.025923455 0.16360494 -0.013874263
-0.021751208 0.1640929 -0.013923249
0.025842449 0.16453588 -0.013138952
-0.020809418 0.16574062 -0.01329529
0.02555017 0.16531518 -0.013498692
-0.020327296 0.16649371 -0.013212847
0.025062704 0.16691504 -0.013276403
-0.01926972 0.16772364 -0.013692367
0.024978567 0.16734695 -0.013099679
-0.019093154 0.16858752 -0.013204564
-0.018947329 0.16853398 -0.013516171
0.02481441 0.16823249 -0.013238755
-0.018616019 0.16971917 -0.01332869
0.024598395 0.16935557 -0.013115544
-0.018468762 0.17003112 -0.013463565
-0.018188518 0.1716226 -0.01328491
-0.017964348 0.17156777 -0.013786492
-0.018018628 0.17286947 -0.013384909
-0.017931245 0.17217569 -0.013739827
0.024577565 0.17251879 -0.013300907
-0.018064093 0.17318991 -0.013255225
0.024884827 0.17355408 -0.0134102
-0.01807682 0.1748289 -0.01318475
0.025329681 0.17452148 -0.013218641
-0.017963102 0.17598379 -0.013895803
0.025834039 0.17555425 -0.013418818
-0.018267969 0.17654455 -0.013272159
0.026253486 0.17642252 -0.013423313
-0.018564619 0.17751431 -0.013357428
0.02682841 0.17738949 -0.013433583
-0.019081295 0.17887513 -0.013436888
-0.018696083 0.17800525 -0.013570202
0.027452087 0.17873533 -0.013373972
-0.019525049 0.1798977 -0.013753405
0.027789101 0.17969567 -0.013533381
-0.019884109 0.18074536 -0.013539597
0.027943574 0.18046349 -0.013785843
0.028056823 0.18063621 -0.013639456
-0.020249387 0.18161759 -0.013357493
0.028291829 0.18155512 -0.013938911
0.028659418 0.18221444 -0.013593953
-0.021171937 0.18389843 -0.013148944
-0.020855654 0.18302451 -0.013306219
0.029252402 0.18346196 -0.013557541
-0.021493845 0.18452407 -0.013356776
0.029725529 0.18458234 -0.01329041
-0.022351045 0.18585268 -0.013752896
-0.021844098 0.18574111 -0.013078117
0.029842531 0.18535535 -0.013792461
0.030037818 0.18555506 -0.01310035
-0.022286966 0.1864123 -0.013411168
0.030128732 0.18633528 -0.013528991
-0.023109632 0.18747738 -0.013749988
-0.022610703 0.18716294 -0.013421503
0.030368911 0.18774219 -0.013682341
-0.023304673 0.18868101 -0.013532035
-0.022905147 0.1882302 -0.013358345
-0.023439797 0.18986169 -0.013339562
0.030529823 0.18962474 -0.01349495
-0.024273889 0.19067398 -0.013715816
0.030621113 0.19060943 -0.013662055
-0.024835404 0.19112423 -0.013906581
-0.023676869 0.19112241 -0.013216376
0.030588116 0.19126841 -0.013363428
-0.025053063 0.19259559 -0.013857398
-0.024286311 0.19259705 -0.013461106
-0.023786793 0.19230169 -0.013071699
0.030649308 0.1924921 -0.013502846
-0.024300329 0.19364087 -0.013269008
-0.02505313 0.19469674 -0.013595885
-0.02467696 0.19476427 -0.013344203
-0.025325872 0.19533221 -0.013712966
-0.02464151 0.19554359 -0.013236929
0.030867444 0.19536859 -0.013421745
-0.025561467 0.19638357 -0.013764543
-0.024752695 0.19619806 -0.01324613
0.031206517 0.19653809 -0.013481781
-0.025178876 0.19779849 -0.013384551
-0.024968144 0.19726589 -0.013297968
0.031832632 0.19727136 -0.013293839
0.032715064 0.19759908 -0.013126641
0.033146165 0.19789886 -0.01307265
-0.025937295 0.19876282 -0.013895527
0.031576622 0.19896121 -0.013788071
0.032487776 0.19859999 -0.013335986
-0.025713403 0.19996443 -0.013603149
0.031780135 0.19928125 -0.013622421
0.032251351 0.19954351 -0.013355449
0.033324897 0.19927138 -0.013039832
-0.026027482 0.20056045 -0.013919588
0.031674925 0.2003372 -0.013467981
0.032215934 0.20053802 -0.013126549
-0.026023248 0.20164287 -0.013905952
-0.025420083 0.20141053 -0.013274364
-0.02561295 0.20225547 -0.013418004
0.030816596 0.20252973 -0.013042305
-0.026024727 0.20308512 -0.01397382
-0.025650153 0.20361169 -0.013391199
0.030725688 0.20338213 -0.013582132
-0.02569285 0.20495188 -0.013412036
-0.025601413 0.20555344 -0.013289897
0.030377686 0.20565751 -0.013581906
-0.025629884 0.20613311 -0.013349221
0.030224537 0.20644909 -0.013717614
-0.025469523 0.20732522 -0.013452683
0.030128052 0.20742711 -0.013604214
-0.025137359 0.2086546 -0.013362763
0.030170277 0.20843728 -0.013671839
-0.025180237 0.20941865 -0.0139582
-0.024881259 0.20943481 -0.013045238
0.030096654 0.2093654 -0.013508165
-0.025213547 0.21079066 -0.013851206
-0.024768559 0.2106006 -0.013231107
-0.0094589386 0.21024927 -0.013615189
-0.0074921772 0.21066371 -0.013435368
0.03052293 0.21076071 -0.013666573
-0.024965825 0.21139742 -0.013512104
-0.010625439 0.21144307 -0.013499673
-0.007181739 0.21144338 -0.013054002
-0.0066924002 0.21170956 -0.013598108
0.031131377 0.21167332 -0.013231642
-0.024536265 0.212703 -0.013222531
-0.0062560379 0.21242066 -0.013512962
-0.0058437316 0.21275334 -0.013848444
0.031207433 0.21227695 -0.013191184
-0.024721764 0.21340925 -0.013380573
-0.013161384 0.21326931 -0.013335258
-0.012936468 0.2132135 -0.013427149
-0.0056685889 0.21325296 -0.013604663
0.031160893 0.21340969 -0.013082685
-0.026185656 0.21496512 -0.01346271
-0.025796108 0.21477641 -0.013185774
-0.013676098 0.21428493 -0.013457809
-0.0047832197 0.21465831 -0.01356153
0.031227224 0.21447106 -0.013478105
-0.026502006 0.21528822 -0.013634665
-0.013583574 0.21565919 -0.013761414
-0.0043091555 0.21542206 -0.013316399
-0.0037311323 0.21576299 -0.013701346
0.015768271 0.2158968 -0.013690002
0.016509149 0.21577866 -0.013293473
0.017625684 0.21585764 -0.013591395
0.03134774 0.21587102 -0.013648003
-0.026853304 0.21657191 -0.013926102
-0.014319134 0.21661502 -0.013259068
-0.013835035 0.21673578 -0.013781643
0.015409189 0.2164429 -0.013081189
0.017926872 0.21605055 -0.013472841
0.018364258 0.21644783 -0.013131329
0.031282078 0.21648221 -0.013534703
-0.026075631 0.21752454 -0.013557594
-0.025544733 0.21736248 -0.013231743
-0.015083423 0.2175324 -0.013244065
0.014175392 0.21759453 -0.013025912
0.018797209 0.2172754 -0.013528823
0.01914159 0.21796159 -0.013314724
0.031183369 0.21719608 -0.013605247
-0.026263673 0.21837911 -0.013985124
-0.025417108 0.21840322 -0.013516784
-0.018189011 0.21865667 -0.013032331
-0.01771161 0.21859723 -0.013134647
-0.01671649 0.21862048 -0.013443
-0.015651949 0.21828955 -0.013667556
-0.0016552487 0.21812776 -0.013107589
-0.00081647409 0.21854921 -0.0135811
0.0119354 0.21882956 -0.013991185
0.012338447 0.21878898 -0.013481778
0.013288244 0.21820219 -0.013226807
0.019418415 0.21859936 -0.013627111
0.030669585 0.21858425 -0.013731804
0.031448554 0.21869254 -0.013067978
-0.024474923 0.21942502 -0.013612909
-0.023880888 0.21951617 -0.013121868
-0.018569766 0.21969433 -0.013255279
-0.017863296 0.21944733 -0.013431896
0.00094691606 0.21972306 -0.013592309
0.011688421 0.2191278 -0.01372353
0.01979785 0.21912143 -0.013242336
0.02078161 0.21978748 -0.013799693
0.028442509 0.21975902 -0.013028731
0.030637242 0.21949556 -0.013790027
-0.023229212 0.22017594 -0.01374897
-0.022464778 0.22037153 -0.013276502
-0.021634912 0.22065303 -0.013253278
-0.02037411 0.22083256 -0.01304817
-0.017417364 0.22043271 -0.013783748
0.0096423868 0.2206077 -0.013279546
0.022337548 0.22089879 -0.013304053
0.028249882 0.22057572 -0.01306125
0.030697055 0.22037892 -0.01381626
0.031058833 0.22013003 -0.013542238
-0.019222315 0.22136292 -0.013549874
-0.018402144 0.22134681 -0.013674915
-0.017341482 0.22120376 -0.013901851
0.0081130946 0.22137126 -0.013549615
0.022727003 0.22163498 -0.013752651
0.023048202 0.22193936 -0.013351074
0.02845039 0.22114933 -0.013200825
0.03111659 0.22160861 -0.01369844
0.032099959 0.22130431 -0.013049169
0.0033429542 0.22226657 -0.013434495
0.0073348833 0.22211879 -0.013476717
0.02798819 0.22246963 -0.013084936
0.028406929 0.22279212 -0.013270589
0.029396335 0.22257212 -0.013473888
0.032195766 0.22287959 -0.013134915
0.0037152646 0.22340889 -0.013712271
0.0069699865 0.22328524 -0.013656706
0.027296957 0.22367512 -0.013018813
0.028525814 0.22360742 -0.013291725
0.029661782 0.22364332 -0.013423983
0.031131512 0.22331333 -0.013937726
0.03235475 0.22372659 -0.013068585
0.003652534 0.22411022 -0.013438437
0.0068838969 0.22437917 -0.013708816
0.02656531 0.22473347 -0.013319852
0.027988426 0.22469443 -0.013300154
0.028184557 0.22426341 -0.013275807
0.02922328 0.22463751 -0.01357042
0.031763628 0.22469199 -0.013673652
0.032120924 0.22456247 -0.013334855
0.0035309005 0.22544837 -0.01353207
0.0068587502 0.22523718 -0.013763785
0.027336435 0.22540323 -0.013417405
0.029662041 0.22540203 -0.013573747
0.030150954 0.22534908 -0.013104179
0.032079708 0.22582535 -0.013562302
0.0033404499 0.22641531 -0.013555253
0.0068873484 0.22627963 -0.013776638
0.0070857108 0.22653145 -0.013119793
0.026755404 0.22624069 -0.013720104
0.027233372 0.22648114 -0.013628679
0.029638007 0.22607054 -0.013568132
0.030087352 0.22634639 -0.013124925
0.032608982 0.22640608 -0.013223517
0.033057936 0.22697911 -0.013010369
0.0030565106 0.22774044 -0.013414799
0.0069624493 0.22731429 -0.013783421
0.02784236 0.22725362 -0.013636186
0.028659394 0.22759053 -0.013588111
0.029237429 0.22757389 -0.013541085
0.032512456 0.22743735 -0.013685755
0.033148713 0.22767848 -0.01323047
0.0029656314 0.22858956 -0.013684988
0.0070613888 0.2288101 -0.013935952
0.028575903 0.22836831 -0.013594039
0.02925491 0.22817916 -0.013509456
0.032617427 0.22843865 -0.013916556
0.033421092 0.22853671 -0.013348108
0.0027715238 0.2295372 -0.013039735
0.0071948068 0.22944883 -0.013458906
0.027736675 0.22959118 -0.013876965
0.029272055 0.22935624 -0.013343903
0.03346299 0.22975637 -0.013335499
0.0026787187 0.23034269 -0.013207809
0.033537876 0.23045492 -0.013205855
0.0071904007 0.23108155 -0.013454547
0.027780088 0.23148549 -0.013840793
0.0070889434 0.23268197 -0.013110381
0.028264154 0.23286654 -0.013153253
0.0015897849 0.23348919 -0.013499575
0.006822072 0.23384906 -0.013694147
0.027546588 0.23358956 -0.013787346
0.028093955 0.23346308 -0.013192078
0.033872318 0.23352629 -0.013910506
-0.00017632302 0.23486307 -0.01311532
0.0070019076 0.23496191 -0.013586428
0.027530083 0.23445174 -0.013551671
0.032719538 0.23481601 -0.01348684
0.033171624 0.23415557 -0.013464899
-0.0013616879 0.23582797 -0.013352762
-0.00086471852 0.23541281 -0.013397358
0.0072772591 0.23564756 -0.013339746
0.026566081 0.23578726 -0.013754901
0.027808929 0.23529607 -0.013051077
0.029457076 0.23556656 -0.013289073
0.030494429 0.23591429 -0.013275327
0.031701617 0.23584911 -0.013502068
0.032624129 0.23504665 -0.013738543
-0.0018322698 0.23628336 -0.013465855
0.025718581 0.23694466 -0.013553007
0.026358362 0.23661888 -0.013427909
0.027667742 0.23631695 -0.013035916
0.028848013 0.23666194 -0.013744052
0.029728044 0.23616579 -0.013916908
0.030691072 0.23608752 -0.013940216
-0.0030823096 0.23771255 -0.013383466
0.0089307688 0.23788747 -0.013419753
0.02495064 0.23760752 -0.013541458
0.025566371 0.23770751 -0.013291663
0.026738724 0.23780072 -0.013154808
0.027372941 0.23748721 -0.013080596
0.028533418 0.23771049 -0.013823798
-0.0039036712 0.23858857 -0.013780073
0.0095988624 0.23854153 -0.013718802
0.022828072 0.2388496 -0.013655033
0.023661094 0.23824397 -0.013802825
0.024786303 0.23806593 -0.013289147
0.02579131 0.23852518 -0.013058544
0.026375081 0.23855516 -0.013104102
0.027716421 0.23881465 -0.013212737
0.028060239 0.23879641 -0.013449544
-0.0044963798 0.23947416 -0.013334026
0.021781638 0.23956719 -0.013753846
0.022359839 0.23929365 -0.013552196
0.023106031 0.23907229 -0.013183136
0.026571179 0.23935147 -0.01316715
0.027302478 0.23940966 -0.013249184
0.028189663 0.2393962 -0.013734811
-0.02141864 0.24055591 -0.013975408
-0.020719055 0.24038133 -0.013819002
-0.019307099 0.24059685 -0.013508532
-0.018835513 0.24064504 -0.01349322
-0.01789232 0.24093397 -0.013308336
-0.0166186 0.24070068 -0.013658933
-0.0052230922 0.24041376 -0.013792721
-0.0049834531 0.24005552 -0.013792624
0.010876146 0.24013411 -0.013789189
0.018981626 0.24098267 -0.013516434
0.019337948 0.24084951 -0.013444263
0.020660091 0.24021831 -0.013610898
0.025759296 0.24064963 -0.013502105
0.02634486 0.2404549 -0.013520728
0.027343471 0.24034134 -0.013522053
0.028092241 0.24034709 -0.013938981
-0.020287352 0.24178986 -0.013307675
-0.019737408 0.24131048 -0.013235387
-0.018600069 0.24128339 -0.013146318
-0.016357858 0.24117491 -0.013143553
-0.015338339 0.24153621 -0.013040852
-0.014113246 0.24189483 -0.013320982
-0.0063018324 0.24193656 -0.013409441
-0.0056936126 0.24118389 -0.01345964
0.011730838 0.24129075 -0.013591073
0.01224037 0.24187706 -0.013353162
0.017756691 0.24170476 -0.01346215
0.018434525 0.24144176 -0.013218422
0.023858741 0.24146396 -0.013264812
-0.020667974 0.24246056 -0.013745745
-0.019612035 0.24271569 -0.013186411
-0.01342942 0.24243864 -0.013252516
-0.0066820732 0.24231941 -0.013441079
-0.0036063064 0.242614 -0.013442431
0.009560205 0.24291658 -0.013321745
0.010057606 0.24297304 -0.013637985
0.012614923 0.24227741 -0.013270804
0.013052044 0.24258208 -0.013785315
0.015649321 0.24289954 -0.013838979
0.016566047 0.24233089 -0.013878246
0.017878424 0.24204816 -0.013067742
0.020181723 0.24298374 -0.013867298
0.021772908 0.24220797 -0.013641972
-0.019685559 0.24308604 -0.013761761
-0.018572278 0.24333628 -0.013579112
-0.017476372 0.24369279 -0.013081692
-0.012018192 0.24349278 -0.013145464
-0.01128697 0.2436709 -0.013589916
-0.010660512 0.24395642 -0.013248413
-0.0083923321 0.24381001 -0.013561917
-0.0051730517 0.24366628 -0.013918698
-0.0046775471 0.24320799 -0.013760056
-0.0034122891 0.24313913 -0.013791844
-0.0023876757 0.2433725 -0.013197693
0.0085729649 0.24366936 -0.013585719
0.0090401601 0.24311043 -0.013860714
0.010887906 0.24332574 -0.013077768
0.011399456 0.24357767 -0.013539732
0.014551252 0.24355462 -0.013406239
0.015528265 0.24327981 -0.013563151
0.016516387 0.24341455 -0.013178121
0.019829161 0.24346891 -0.01318722
0.020006774 0.24329439 -0.013408338
-0.014579404 0.24470524 -0.0137305
-0.0092555135 0.24409987 -0.013528978
-0.0087947017 0.24413814 -0.013276794
-0.0063645276 0.2445651 -0.013954394
-0.0057403632 0.24426046 -0.013133394
-0.0026972892 0.24443145 -0.013664667
0.0079985904 0.24498777 -0.013014638
0.0085254256 0.24401377 -0.013946651
0.012696371 0.24454808 -0.013283232
0.013373855 0.24497209 -0.013409958
0.015425876 0.24437165 -0.013207197
0.016142804 0.24416208 -0.013135102
0.017894786 0.24464194 -0.013651845
0.018212676 0.24425733 -0.013767219
0.019057091 0.24400881 -0.013006666
-0.014042768 0.24510898 -0.013371888
-0.013984155 0.24519266 -0.013181015
-0.012834012 0.24596681 -0.01376302
-0.007617455 0.24588232 -0.013329998
0.0078548789 0.24545188 -0.013269127
0.0080747306 0.24527089 -0.013777682
0.01377652 0.24517503 -0.013796424
0.014620063 0.2457097 -0.013501831
0.015495691 0.24588786 -0.013002616
0.017528815 0.24530907 -0.0133964
-0.011733706 0.24686858 -0.013998168
-0.008663496 0.24659356 -0.013478465
0.0056399256 0.24690142 -0.013472058
0.0065034106 0.24678096 -0.013707462
0.015438597 0.2460541 -0.013302107
0.016554562 0.24635717 -0.013328062
0.017174952 0.24635561 -0.013859595
-0.011184747 0.24715662 -0.013379879
-0.010737877 0.24724612 -0.013642712
-0.0098883631 0.24717042 -0.013469606
0.0015619922 0.24765143 -0.013446354
0.0029499095 0.24764858 -0.013813479
0.0037568994 0.24748527 -0.013677575
0.0042320713 0.24736929 -0.013460626
0.0052884612 0.24700399 -0.013457741
0.023455318 0.054331359 -0.012407416
0.024753727 0.054307222 -0.012585873
0.025750667 0.054373138 -0.012324146
0.02675681 0.054629464 -0.012816273
0.027580636 0.054646447 -0.012473298
0.028830526 0.054698762 -0.012177086
0.029633051 0.05481039 -0.012316003
0.03111825 0.054979056 -0.012193643
0.022701081 0.055410758 -0.012312369
0.031514842 0.055742115 -0.012407366
-0.036079425 0.05699851 -0.012513471
-0.035730958 0.056896057 -0.012649894
-0.034074318 0.056596771 -0.012953295
-0.033535957 0.056749292 -0.012405662
0.023354527 0.05668167 -0.012081937
0.030586317 0.056636836 -0.012439628
0.03118537 0.056212828 -0.012526638
-0.038998947 0.057813417 -0.012346734
-0.037647754 0.05744968 -0.012511657
-0.036424335 0.057102781 -0.012505691
-0.033332951 0.057887573 -0.012882015
0.02298134 0.057836339 -0.012520349
0.023117796 0.057751358 -0.012001404
0.030416638 0.057804734 -0.012168971
-0.042064026 0.058801949 -0.012359351
-0.041398395 0.058549229 -0.012823857
-0.040381115 0.058175653 -0.012180067
-0.033552866 0.058514744 -0.01260692
0.022886228 0.058363955 -0.01252903
0.030558242 0.058061253 -0.012463545
0.031103887 0.058583803 -0.01268806
-0.043218844 0.05988773 -0.012713082
-0.042886369 0.059513025 -0.012947289
-0.033404179 0.059391811 -0.012209972
0.022641711 0.059739865 -0.012324287
0.032543365 0.059965663 -0.012678643
-0.043607596 0.0603365 -0.012348422
-0.033051208 0.060462333 -0.012385414
-0.032659046 0.060964495 -0.012919541
0.01888681 0.060950141 -0.012208599
0.019662695 0.060903769 -0.012593663
0.020379851 0.060877848 -0.012458537
0.021795303 0.060703337 -0.012452303
0.022054439 0.060608815 -0.012457745
0.032653291 0.06011463 -0.012728485
0.033219691 0.060793776 -0.012340877
-0.044564866 0.061717883 -0.012120711
-0.032639135 0.061110057 -0.012191207
-0.031411096 0.06107723 -0.012640623
-0.030894069 0.061125439 -0.012444596
-0.029352918 0.06123171 -0.012689924
-0.028831596 0.061263621 -0.012164605
-0.027740777 0.061283987 -0.012010759
-0.026108203 0.061265901 -0.012539206
-0.025252918 0.06124616 -0.012669489
-0.024418153 0.061232422 -0.012185185
-0.023950223 0.061225809 -0.012285903
-0.022353008 0.061187111 -0.01291557
-0.017559459 0.061142802 -0.012648907
-0.016834991 0.061139017 -0.012393158
-0.015460648 0.061132848 -0.012366722
-0.013741355 0.061133653 -0.01211806
-0.012507338 0.061132044 -0.012338601
-0.011528773 0.061118394 -0.012639042
-0.010076691 0.061098285 -0.012483099
-0.0091749951 0.0610881 -0.01286101
-0.0081393225 0.061065637 -0.01270711
-0.0071440991 0.061051063 -0.012740369
-0.0050889933 0.061021179 -0.012585432
-0.0048556458 0.061011881 -0.012132229
-0.002373063 0.061014678 -0.012788034
-0.0019190306 0.061015062 -0.012829433
-0.00035720263 0.061009627 -0.012672576
0.0016734911 0.061012812 -0.012255805
0.0023968716 0.061017949 -0.012655999
0.0033997712 0.061017171 -0.01269883
0.0046002688 0.061004713 -0.012733538
0.0057268748 0.061004281 -0.012257235
0.0068183467 0.06100522 -0.012657494
0.0075598895 0.061010703 -0.012866175
0.0086744623 0.061013933 -0.012764672
0.009342866 0.061019182 -0.012556568
0.01161107 0.06103446 -0.012647557
0.013273731 0.061071485 -0.012269226
0.014394478 0.061078012 -0.012665044
0.033709094 0.061614979 -0.012519745
-0.045069978 0.062951781 -0.012461095
-0.044904679 0.06257499 -0.012675326
0.033965267 0.062168956 -0.012598768
0.034181181 0.062694728 -0.012457428
-0.045266807 0.063612595 -0.012565152
0.034387946 0.063456163 -0.012523711
-0.045519941 0.06472449 -0.012632146
0.034646951 0.064962909 -0.012597709
-0.045638178 0.06552837 -0.012740398
0.034711231 0.065215938 -0.012375427
-0.045750976 0.066932067 -0.012103382
-0.045612652 0.06749355 -0.01251102
0.034530625 0.067892551 -0.012343735
-0.045319587 0.068538278 -0.012428066
0.033989321 0.068962827 -0.012649327
0.034195714 0.068551555 -0.012678649
-0.044651903 0.069795087 -0.012586004
0.03355575 0.069731809 -0.012580445
-0.044408876 0.070254259 -0.012338538
0.032689769 0.070881978 -0.012730754
-0.043521881 0.071301468 -0.012523273
0.032209929 0.071441263 -0.012403171
-0.042108558 0.072354153 -0.012433197
-0.041127171 0.07297194 -0.012549819
0.030628184 0.072506063 -0.012564331
-0.040688474 0.073907495 -0.012547294
0.03006809 0.073237523 -0.01268867
-0.040630821 0.074236415 -0.012631094
0.029975437 0.074864373 -0.012410553
-0.040762998 0.075378314 -0.012683133
0.030616021 0.075661868 -0.012408826
-0.041734491 0.076267406 -0.012356472
0.03130956 0.076388292 -0.012411391
-0.042270992 0.078509562 -0.012220814
0.023361258 0.07896141 -0.012307551
0.024525698 0.078944519 -0.01236502
0.025539849 0.078988113 -0.012660548
0.03152217 0.078427985 -0.012263861
-0.041690346 0.079434499 -0.012025304
-0.040476523 0.079744793 -0.012568719
-0.039236024 0.079557188 -0.012413529
-0.038101483 0.079552278 -0.012302625
-0.036980048 0.07955645 -0.012298899
-0.035533957 0.079519205 -0.01246452
-0.034617726 0.079500243 -0.012523327
-0.033753812 0.079494745 -0.012399845
-0.032603551 0.079472043 -0.012471443
-0.031705763 0.079392247 -0.012775005
-0.030571895 0.079339668 -0.012163896
-0.02972878 0.079233989 -0.012489777
-0.028330296 0.079200484 -0.012552232
-0.027895158 0.079191513 -0.012780507
-0.026575059 0.079185911 -0.012632531
-0.02565424 0.079194911 -0.012778043
-0.024712926 0.079194732 -0.012221198
-0.022524705 0.07947693 -0.012603749
-0.021973407 0.079620197 -0.012460106
-0.019858325 0.079452358 -0.012636429
-0.011305436 0.079760216 -0.012634578
-0.010918922 0.079579264 -0.012489878
-0.0096063921 0.079375215 -0.01263876
-0.0086911544 0.079383738 -0.012440201
-0.0077214539 0.079383418 -0.012941601
-0.0061139907 0.079305619 -0.012415722
-0.0051844092 0.079255745 -0.012254723
-0.0044336566 0.079276472 -0.012578595
-0.0023867565 0.07927312 -0.012677278
-0.0016477862 0.079255365 -0.012179553
-0.00029069782 0.079301596 -0.012904878
0.00035018724 0.079412833 -0.012425981
0.0012750835 0.079569727 -0.012612745
0.0027107254 0.07956218 -0.012720264
0.0035071988 0.079473011 -0.012471937
0.0055525573 0.079380929 -0.012258085
0.019301895 0.079385914 -0.012915207
0.020825392 0.079037681 -0.012559586
0.021584252 0.079003915 -0.012134627
0.026507676 0.079080805 -0.012150516
0.027586609 0.079274148 -0.012474529
0.029451359 0.079419374 -0.012622315
0.031265065 0.079206049 -0.012499667
-0.020577641 0.080427699 -0.012638122
-0.012162014 0.080270305 -0.012413912
0.0067651607 0.080785587 -0.012866486
0.019332448 0.080282778 -0.012807045
-0.020648802 0.081347562 -0.012423098
-0.01229207 0.08151789 -0.012592312
0.0068709375 0.081217334 -0.012765658
0.0073633543 0.081780933 -0.01215444
0.019718243 0.081365518 -0.01228772
0.020078437 0.081176497 -0.01201481
-0.02035851 0.082219183 -0.012477268
-0.019684622 0.08284691 -0.012960804
-0.012334862 0.082202248 -0.012418922
0.0075117713 0.082780272 -0.012049509
0.018741162 0.082852013 -0.012607214
-0.019597877 0.083714992 -0.012708439
-0.012161418 0.083601959 -0.012931856
0.0071497168 0.083618671 -0.012669994
0.017909398 0.083711006 -0.012955965
-0.019455146 0.084579498 -0.012484984
-0.012255299 0.084361017 -0.012532751
0.0077013699 0.084524192 -0.012101354
0.017959746 0.084423013 -0.012131119
-0.01899638 0.085470691 -0.012648571
-0.012240387 0.085960194 -0.012080666
0.0074997093 0.085735679 -0.01256461
0.016826494 0.085520267 -0.012196637
0.017173488 0.085171521 -0.012253636
-0.040479094 0.086473361 -0.012533993
-0.039373923 0.086516529 -0.012167898
-0.038241148 0.08687228 -0.012225637
-0.019547954 0.086732656 -0.012429893
-0.012058115 0.086505055 -0.012363496
-0.01190595 0.086600199 -0.012802765
0.0075700786 0.086348027 -0.012549127
0.015423752 0.08678595 -0.012435421
0.016098611 0.086059883 -0.012513156
-0.041004851 0.087240294 -0.012425115
-0.040784426 0.087484017 -0.012716293
-0.037123643 0.087119132 -0.012232992
-0.036724489 0.087187327 -0.012235928
-0.035771739 0.087305859 -0.012275955
-0.034823239 0.087355047 -0.01248822
-0.033487037 0.087534644 -0.012358719
-0.031528458 0.08784575 -0.012165954
-0.030945119 0.087967604 -0.012259625
-0.019555058 0.087591924 -0.012871459
-0.011895254 0.087463088 -0.012221084
0.007568148 0.087624177 -0.012650297
0.015043153 0.087394506 -0.012086776
-0.029928798 0.088343769 -0.012145191
-0.028703451 0.088611275 -0.01249694
-0.027690411 0.088804364 -0.012494221
-0.025794497 0.088860646 -0.012276454
-0.020246966 0.088207752 -0.012239292
-0.019733751 0.088013642 -0.012820455
0.0077346861 0.088545531 -0.012560457
0.0081675202 0.088612422 -0.012201447
0.014004455 0.08897344 -0.012444966
-0.040416755 0.089394324 -0.012305744
-0.039923139 0.089605488 -0.01274365
-0.02492794 0.089054301 -0.012065658
-0.023409938 0.08933384 -0.012675669
-0.022683064 0.089661807 -0.012373628
-0.021730147 0.089845866 -0.012425612
-0.02083903 0.089648068 -0.012822084
-0.011660031 0.089710824 -0.012765546
0.0082504135 0.089165226 -0.012166703
0.013903658 0.089275144 -0.012385221
-0.039610084 0.090200104 -0.012555231
-0.038469568 0.09097375 -0.012709513
-0.025414631 0.090325736 -0.012589577
-0.024643591 0.090571783 -0.012093836
-0.011221024 0.090418808 -0.012215132
-0.010752431 0.090572841 -0.012484456
-0.0099650165 0.090809815 -0.012617984
-0.0045596538 0.09088026 -0.012425356
-0.0034657302 0.090722241 -0.012370043
-0.0021501225 0.090802699 -0.012475668
-0.0014386029 0.090908691 -0.012060988
-0.00043758837 0.090850122 -0.012563488
0.00045171674 0.090935126 -0.012377609
0.0014801649 0.090929031 -0.012998806
0.00750686 0.09055084 -0.012745622
0.013464009 0.090491734 -0.012632608
-0.037676018 0.091600209 -0.012621218
-0.0093671028 0.091018915 -0.012873732
-0.0085193096 0.091258936 -0.012359113
-0.0076564313 0.091256201 -0.012582943
-0.0064726109 0.091163255 -0.012497521
-0.0054167421 0.091039106 -0.012625547
0.0024866243 0.091092624 -0.012506202
0.0032109735 0.091130979 -0.012688266
0.0047875065 0.091402501 -0.01247301
0.0054942151 0.091842331 -0.012892439
0.0074237622 0.091436297 -0.012701829
0.0081394855 0.091803744 -0.012082327
0.01326105 0.091403425 -0.012558932
-0.037205815 0.092250988 -0.012192139
-0.036550447 0.092394054 -0.01257458
0.0057403143 0.092218064 -0.012459788
0.0061768647 0.092782415 -0.012171095
0.0075522736 0.092448443 -0.012376364
0.013173813 0.092447259 -0.012689827
-0.035508275 0.093331136 -0.012360667
0.0073345015 0.093174666 -0.01221327
0.013216627 0.093570009 -0.012654556
-0.034283243 0.094550967 -0.012339036
0.013360733 0.094691113 -0.012724027
-0.033515587 0.095845863 -0.012227423
-0.032936361 0.095987715 -0.01288853
0.01336997 0.095049806 -0.012220563
-0.032710027 0.096496776 -0.012796953
0.013545135 0.096154854 -0.012831775
-0.03221776 0.09764909 -0.012579579
0.013734911 0.097425163 -0.012645721
-0.031675018 0.09875378 -0.012661852
0.013864499 0.098134086 -0.012438854
0.014138006 0.098750867 -0.012640211
-0.031468216 0.099715844 -0.012409896
0.028307864 0.0998611 -0.012633579
0.029395109 0.099691398 -0.012660746
-0.031112185 0.10011022 -0.012903197
0.014445818 0.10039299 -0.01251632
0.026774103 0.10093028 -0.012967561
0.027376557 0.100085 -0.012959854
0.028623834 0.10064783 -0.012432222
0.030221136 0.10036384 -0.012490602
-0.030768335 0.10102577 -0.012798398
0.014737725 0.10142191 -0.01250903
0.015415746 0.10191473 -0.012445187
0.016378637 0.10190921 -0.012495288
0.025200861 0.10175551 -0.012900717
0.02679961 0.10166182 -0.012740475
0.02771903 0.10149389 -0.012671236
0.028522931 0.10134331 -0.012406633
0.030399181 0.10138073 -0.01258854
0.017560698 0.10222852 -0.012606574
0.022328813 0.10271529 -0.012933038
0.025184678 0.10221068 -0.012747543
0.026185703 0.10243183 -0.012497783
0.027545508 0.10215507 -0.012192968
0.030658104 0.10248781 -0.012296412
-0.030501869 0.10381474 -0.012957714
0.017729558 0.10348271 -0.012095988
0.021612 0.10376801 -0.012973151
0.022719404 0.10338917 -0.012514244
0.023646932 0.10376005 -0.012414999
0.025099296 0.10323279 -0.012413047
-0.03337124 0.10495941 -0.012324719
-0.032566618 0.10482906 -0.012080936
-0.031674668 0.10473154 -0.012555613
-0.030999413 0.10438489 -0.012570902
0.01869333 0.10449811 -0.012541157
0.019014729 0.10489696 -0.012675677
0.021649236 0.10489184 -0.012342409
0.022412818 0.10424731 -0.012269082
0.023474686 0.10428134 -0.012137694
0.030816605 0.10493808 -0.012893114
-0.03311006 0.10530299 -0.012566492
-0.032585949 0.10549738 -0.012749109
0.020722635 0.10582166 -0.0127961
0.021402245 0.105126 -0.012429514
0.03062191 0.10506781 -0.012175017
0.031021418 0.10598242 -0.012314184
-0.035079818 0.10627657 -0.012171735
-0.034751907 0.10644028 -0.012778845
0.020197496 0.10670115 -0.012545694
0.021135479 0.10673954 -0.012084693
-0.037139427 0.1078492 -0.012054753
-0.036284339 0.10779044 -0.012407689
-0.035798341 0.10735106 -0.012111906
-0.034999598 0.10706258 -0.012927501
0.019987237 0.10776874 -0.012164261
0.020424306 0.10771934 -0.012122694
0.026877351 0.10775863 -0.012990923
0.02774094 0.10793841 -0.012365288
0.028452855 0.10769461 -0.012603076
0.029700756 0.10766795 -0.012539444
0.030171411 0.10765075 -0.012635999
0.031029111 0.10714068 -0.012609581
-0.037356991 0.10843742 -0.01227647
0.024740731 0.10883642 -0.012511897
0.025549343 0.10827231 -0.01259117
0.026816033 0.10813552 -0.01225888
0.02834768 0.10803849 -0.012056875
-0.037659239 0.10936683 -0.01225867
0.023956528 0.10986654 -0.012912479
0.024019012 0.10973971 -0.012808329
-0.03733433 0.11036225 -0.012545211
-0.03723317 0.1114974 -0.012452544
0.023687705 0.11182464 -0.012536686
-0.038009066 0.11287368 -0.012100616
-0.037731573 0.11254427 -0.012319047
0.023700487 0.11292377 -0.012745338
-0.038081277 0.11395417 -0.012705233
0.023675898 0.11345897 -0.012209315
0.023752935 0.11464039 -0.012278592
-0.037197135 0.11562654 -0.012563699
-0.035341457 0.11585142 -0.012748997
-0.034414534 0.11583941 -0.012173172
-0.033562448 0.1157586 -0.012382807
-0.032394346 0.11577238 -0.012544749
-0.031239888 0.11591119 -0.012797214
-0.029527839 0.11597524 -0.012434476
-0.028875614 0.11642833 -0.0129592
0.023940433 0.11625674 -0.012380987
0.024019936 0.11676814 -0.012358865
-0.028449481 0.11746515 -0.012350363
0.024043383 0.11702241 -0.012107127
-0.028226882 0.11863529 -0.012819621
0.024392618 0.1185362 -0.012468262
-0.02806465 0.11935896 -0.012395216
-0.027973734 0.11987883 -0.012296055
0.02458713 0.11942647 -0.012420096
-0.027885742 0.12057371 -0.012623561
0.024812955 0.12043764 -0.012448804
-0.027975243 0.12154334 -0.012064369
0.024974167 0.12111492 -0.012606432
-0.03319861 0.12262279 -0.012338362
-0.032451604 0.12237319 -0.012402956
-0.031101784 0.12276075 -0.012540601
-0.030324735 0.12267447 -0.01250863
-0.029493015 0.12241732 -0.012299277
0.025303727 0.12267681 -0.012389387
-0.034003027 0.12322807 -0.012030952
-0.033750009 0.12343241 -0.012497901
-0.032648854 0.12322071 -0.012977899
0.02549595 0.12336384 -0.012583947
-0.034079924 0.12443042 -0.012376945
0.025870278 0.12489881 -0.012735993
-0.034304403 0.12564573 -0.012540087
0.025986079 0.12577854 -0.012024163
-0.035558078 0.12666513 -0.012218672
-0.034544244 0.12672962 -0.012928002
0.026105192 0.12600453 -0.012598596
-0.035791472 0.12776342 -0.012327857
0.026506418 0.12783107 -0.012282136
-0.035771333 0.12843418 -0.012372399
0.026689284 0.12852776 -0.012285476
-0.035567738 0.12980232 -0.012383303
0.026888732 0.12944433 -0.012045195
0.027060052 0.12977545 -0.01284453
-0.035365008 0.13045254 -0.012490055
0.027211653 0.13047594 -0.01234071
-0.0350876 0.13145863 -0.012412975
-0.034933791 0.13156798 -0.012663031
-0.034156796 0.13265878 -0.01295872
-0.034199778 0.13332275 -0.01245845
-0.03046375 0.13391541 -0.012372981
-0.029596306 0.13377701 -0.012593202
-0.028465929 0.1338017 -0.012388053
0.028071025 0.13380909 -0.012636924
-0.033649348 0.13428061 -0.012179162
-0.032458302 0.13439701 -0.012493239
-0.031748891 0.13428904 -0.012765859
-0.027229995 0.13471422 -0.012170134
0.028235406 0.13444649 -0.01224504
-0.0334929 0.13507409 -0.012903677
-0.027279392 0.13560772 -0.012764543
0.028433522 0.13534881 -0.012163651
-0.026973737 0.13671088 -0.012181815
0.02876104 0.13678339 -0.012173527
-0.033557314 0.13786137 -0.012957576
-0.032607619 0.13797644 -0.012344928
-0.030319279 0.13787897 -0.012918603
-0.029218586 0.13788447 -0.012840621
-0.028176092 0.13799982 -0.012290902
-0.027085312 0.13724524 -0.012251456
0.02883219 0.13712184 -0.012364172
-0.03394784 0.13852191 -0.012501721
-0.031845257 0.138071 -0.012471661
-0.029450828 0.13800699 -0.012495153
0.029130548 0.13845578 -0.012223708
0.029225262 0.13949426 -0.012722589
-0.033405982 0.14073882 -0.012520041
0.029441308 0.14026943 -0.012133859
-0.032831743 0.14174765 -0.012410772
0.029625645 0.14144854 -0.012362259
-0.033010133 0.14291091 -0.01249796
-0.032802306 0.14238903 -0.012463471
0.030298859 0.14345533 -0.012367533
0.030530771 0.1444633 -0.012713783
0.031520516 0.14466293 -0.012126213
-0.03268373 0.14562771 -0.012172105
0.031693097 0.14539868 -0.012417077
-0.032006919 0.14658031 -0.012791088
0.032076463 0.14633271 -0.012299472
-0.031815972 0.14737006 -0.012603411
0.032353502 0.14769809 -0.012538329
-0.031835984 0.14845519 -0.012728612
0.032396425 0.14852926 -0.012666379
-0.032230072 0.14943367 -0.012540969
-0.031978492 0.14902559 -0.012844192
-0.028875837 0.14997508 -0.012155428
0.032617968 0.14932767 -0.012487682
-0.031512804 0.15069167 -0.012176136
-0.030447643 0.15087122 -0.012680693
-0.029424753 0.15073869 -0.012746226
-0.028348647 0.1506364 -0.012990936
-0.027148107 0.15013228 -0.01235515
-0.026927371 0.15054634 -0.012635146
0.031847339 0.15060218 -0.012819722
0.032650944 0.15031704 -0.012582864
-0.032013781 0.1510268 -0.012618917
-0.031893041 0.15114047 -0.012718976
-0.030275483 0.15107194 -0.012929817
-0.026314044 0.15170343 -0.01246195
0.030591479 0.1517152 -0.012838549
0.031244257 0.15132539 -0.012689258
0.032915022 0.15131542 -0.012376142
0.033259675 0.15128109 -0.012102373
-0.026087917 0.15233684 -0.012948327
0.030380689 0.1526012 -0.012495865
0.031405345 0.15216903 -0.012354092
0.032472305 0.1528416 -0.012164452
0.033594739 0.15276825 -0.012060386
-0.025834735 0.15364046 -0.012498868
0.029703291 0.15362716 -0.01264421
0.030629359 0.15376998 -0.012037615
0.031072125 0.15334934 -0.012096981
0.032757547 0.15341856 -0.012111309
0.033828259 0.15385364 -0.012013264
-0.025687035 0.1546267 -0.012266027
0.029919576 0.15423469 -0.012226986
0.033343233 0.15437491 -0.012035714
-0.025448648 0.15553392 -0.012492797
0.028824046 0.15565121 -0.012472351
0.029404495 0.1554423 -0.012102965
-0.025212683 0.15648121 -0.012463588
0.028901579 0.15608194 -0.01212846
-0.024777073 0.15786861 -0.012623949
0.028259456 0.15746997 -0.012198365
-0.024603555 0.15857139 -0.01219049
0.027687673 0.15893529 -0.012664948
-0.024219781 0.15951674 -0.012585208
0.027440106 0.15979941 -0.012624189
-0.02378373 0.16066004 -0.012513832
0.027255349 0.16044648 -0.012459028
-0.023408003 0.16153687 -0.012520492
0.026813006 0.16141337 -0.01261614
0.026508706 0.16259664 -0.012472317
-0.02249199 0.16350727 -0.012539861
0.02614671 0.16359709 -0.012939086
0.025807975 0.16481078 -0.012581364
-0.021230763 0.16567653 -0.012460506
0.025513239 0.16554189 -0.012273276
-0.020640988 0.16647205 -0.012631757
0.025021544 0.16687497 -0.012247218
-0.020103574 0.16718067 -0.01282546
0.024870913 0.16764647 -0.012412941
0.024709187 0.16849704 -0.012298066
-0.018982263 0.16986713 -0.012395954
0.024558514 0.16948819 -0.012545561
0.024406089 0.17072704 -0.012337342
0.033624258 0.17065184 -0.012150188
0.034735478 0.17010869 -0.012063686
-0.018441794 0.17193611 -0.012493678
0.024380168 0.17159995 -0.012171306
0.033488609 0.1718016 -0.012239859
0.034847215 0.17167626 -0.01221504
-0.01856572 0.17229912 -0.012008257
0.024582593 0.17277022 -0.01256798
0.033697419 0.17239936 -0.012336094
0.034537777 0.17227602 -0.012413219
-0.018304985 0.1734791 -0.01250902
0.024851786 0.17337357 -0.012600129
0.033211105 0.17313726 -0.012237229
0.034529537 0.17369205 -0.012535517
-0.018324293 0.17426091 -0.012314402
0.025183827 0.17415994 -0.012948563
0.033508062 0.17437935 -0.012387563
0.03454677 0.17474768 -0.012349932
-0.018272212 0.17545292 -0.01262671
0.026104702 0.17599465 -0.01276457
0.032442674 0.17563844 -0.012187636
0.033190805 0.17566685 -0.01241376
0.03429047 0.17571501 -0.012628681
-0.018500984 0.17651092 -0.0123708
0.032672152 0.17623685 -0.012339666
0.033739343 0.17636618 -0.012598295
0.034722455 0.17653768 -0.012567289
-0.018737553 0.17746873 -0.012339567
0.027311463 0.17770468 -0.012310539
0.032810643 0.17728373 -0.012495631
0.033170749 0.17771903 -0.012605662
0.034391697 0.17758745 -0.012678348
-0.019122817 0.17872575 -0.012475898
-0.018890275 0.17828977 -0.01296647
0.027539181 0.1781683 -0.012401924
0.030850455 0.17879313 -0.012042661
0.031697206 0.17838627 -0.012255132
0.032649916 0.1786609 -0.01254338
0.033801746 0.17856304 -0.012660263
0.034910776 0.17867313 -0.012487477
0.035137221 0.17891084 -0.012083285
-0.019348491 0.17927462 -0.012039422
0.028360264 0.17958187 -0.012450889
0.030265221 0.17944209 -0.012029867
0.031522151 0.17934537 -0.012309105
0.032327686 0.17980185 -0.012538174
0.033569008 0.17929965 -0.01264826
0.034194361 0.17938961 -0.012627685
-0.019567994 0.18003996 -0.012969429
0.028296579 0.18034747 -0.012847818
0.029956179 0.18075292 -0.01232318
0.031981781 0.18056305 -0.012513317
0.032449421 0.1804298 -0.012563683
0.033291519 0.18036741 -0.012607987
0.034627639 0.18061823 -0.012452794
-0.020155085 0.18146172 -0.012971462
-0.019998256 0.18112098 -0.012710543
0.029651308 0.18145813 -0.012511088
0.030360263 0.18150908 -0.012452652
0.031544954 0.18157141 -0.012503062
0.032421157 0.18127395 -0.012560521
0.033524029 0.18137158 -0.01254859
-0.020590788 0.18263078 -0.012701293
0.032467019 0.18257487 -0.01249378
0.033722352 0.18273751 -0.012341991
0.034808189 0.18299055 -0.012011419
-0.020833159 0.18324484 -0.012757391
0.029820871 0.18312457 -0.012728645
0.031118091 0.18342759 -0.012486031
0.033590861 0.18349741 -0.012214969
0.034371041 0.183468 -0.012115044
-0.021230713 0.1845744 -0.012364622
0.029933376 0.18406177 -0.012814803
0.030354267 0.1846907 -0.01263567
0.031398717 0.18440007 -0.012360756
0.032981217 0.18499972 -0.012062033
-0.021514084 0.18526506 -0.012602687
0.030316062 0.18527001 -0.012659542
0.031225637 0.18524717 -0.012295502
0.032381561 0.18535279 -0.012121733
-0.022173364 0.18690687 -0.012942655
0.030594045 0.18631032 -0.012578407
0.03155702 0.18643729 -0.01212988
-0.022246938 0.18767971 -0.012495758
0.030787079 0.18785401 -0.012240172
0.031048367 0.18756244 -0.012091264
-0.022458233 0.18850608 -0.012307347
0.030583851 0.18822092 -0.012614413
-0.022790637 0.18938409 -0.01255512
0.030486962 0.18943566 -0.012601691
-0.023179416 0.19079238 -0.012664286
-0.022800742 0.19007011 -0.012116238
0.030560669 0.19039601 -0.012330949
-0.023295879 0.19148701 -0.012562429
0.030503664 0.19142132 -0.012483263
-0.023685344 0.19360851 -0.012379522
0.030428568 0.19359152 -0.012568634
-0.023829699 0.19461349 -0.012324275
0.030605134 0.19462326 -0.012989637
-0.024196992 0.19561453 -0.012750152
-0.023898818 0.19561577 -0.012128044
0.030738695 0.1952759 -0.012778455
0.031030824 0.19595468 -0.012764378
-0.024220567 0.19631734 -0.012624168
-0.023978403 0.19658792 -0.012088169
0.031516187 0.19620506 -0.012519624
0.032446265 0.19649662 -0.012641524
0.033418916 0.19667213 -0.012401566
-0.02444962 0.19768137 -0.012763149
0.032778621 0.19711523 -0.012922931
0.034128513 0.19774468 -0.012010408
-0.024116836 0.19881724 -0.012090517
0.033704396 0.19824404 -0.012798428
0.034151021 0.19836241 -0.012362849
0.034235172 0.19958067 -0.012337927
-0.024759686 0.20070282 -0.012822412
0.032705016 0.20074975 -0.012891151
0.034216337 0.20021509 -0.012225416
-0.024526764 0.20146225 -0.012520631
0.032345407 0.2014859 -0.012571536
0.033073712 0.20108569 -0.012602475
-0.024361907 0.20248409 -0.012288135
0.031408418 0.20230293 -0.012048712
-0.02468298 0.20347598 -0.012446762
0.030586284 0.20341368 -0.012170231
-0.025095023 0.20452458 -0.012690583
-0.024994044 0.2047109 -0.012560309
0.030432755 0.204219 -0.01266212
-0.024895072 0.20555711 -0.012303825
0.030212678 0.20573756 -0.012466107
-0.025165858 0.2064386 -0.012531724
-0.025256196 0.20745808 -0.012730456
0.030107295 0.2072304 -0.012306801
-0.02505477 0.2084206 -0.012704236
-0.024750533 0.20851254 -0.012012944
0.030307794 0.20873664 -0.012306103
-0.024712298 0.20963794 -0.012562027
-0.0099271629 0.20962605 -0.012082548
-0.0087674689 0.2098985 -0.012618462
0.030583411 0.20908436 -0.012073507
-0.024273172 0.21064033 -0.012190227
-0.011022914 0.21057503 -0.012250027
-0.010390929 0.21056823 -0.012712291
-0.0082944939 0.21040681 -0.012331014
-0.0079151029 0.21047534 -0.012982018
0.030628497 0.21035376 -0.012541167
-0.024340099 0.21168862 -0.012788624
-0.013536298 0.21188298 -0.0120826
-0.011434543 0.21136446 -0.012571892
-0.0072388528 0.21155035 -0.012856872
0.031169146 0.21157828 -0.012277717
-0.024101006 0.21229585 -0.012655688
-0.023969285 0.21279375 -0.01262439
-0.013497111 0.21250032 -0.012607396
-0.0063898889 0.21291563 -0.012713492
0.031551383 0.21269944 -0.012109254
-0.024293086 0.21365814 -0.012714094
-0.023752615 0.21351145 -0.012315105
-0.01457226 0.21333686 -0.012473625
-0.013568925 0.21308328 -0.012980573
-0.0062603801 0.2134807 -0.01235006
0.031163236 0.21332581 -0.012779363
-0.025058072 0.21495748 -0.012464411
-0.024670973 0.21467906 -0.012329187
-0.015239043 0.21463385 -0.012457649
-0.014843813 0.2141937 -0.012674492
-0.0056660082 0.21439762 -0.01233766
0.031583551 0.21496587 -0.01229075
-0.025327988 0.21550122 -0.01257282
-0.024744229 0.2156139 -0.012186058
-0.015572353 0.21530487 -0.012318565
-0.014639094 0.21546544 -0.012899604
0.016706439 0.21592191 -0.012288745
0.017750682 0.21582501 -0.01234639
0.018244518 0.21597405 -0.012006329
0.031911649 0.21537074 -0.012161851
-0.025359681 0.21665972 -0.012878167
-0.024194434 0.2164726 -0.012125194
-0.016223118 0.21622951 -0.012038585
-0.015337411 0.21659984 -0.01258326
-0.014717803 0.21621147 -0.012814638
-0.004228882 0.21620528 -0.012170115
-0.003448853 0.21682885 -0.012514553
0.015386002 0.21670932 -0.012509715
0.017979532 0.21605597 -0.012844045
0.018470377 0.21645236 -0.012496919
0.031435959 0.21646254 -0.012600671
0.032277357 0.21609686 -0.012068997
-0.02505783 0.21738905 -0.012987677
-0.02438459 0.2176065 -0.012778056
-0.023100272 0.21738669 -0.012251148
-0.022746179 0.21750851 -0.012240675
-0.021388778 0.21796028 -0.012319894
-0.020259036 0.21759205 -0.012094416
-0.019546218 0.21783027 -0.012287324
-0.018708413 0.21767773 -0.012250575
-0.017257661 0.21762708 -0.012491249
0.014059971 0.21781395 -0.012773157
0.018882841 0.2172268 -0.012918864
0.019090177 0.21761729 -0.012801304
0.031787269 0.21746017 -0.012431309
0.032783218 0.2175298 -0.012058256
-0.024138592 0.21876018 -0.01291402
-0.023540299 0.218528 -0.012728527
-0.022617407 0.21847343 -0.012587152
-0.021166146 0.21876781 -0.01259754
-0.020751132 0.21847115 -0.012514147
-0.019587163 0.21829946 -0.012544401
-0.018459566 0.21841484 -0.012817523
-0.001431589 0.21855581 -0.012684137
0.012925884 0.21870422 -0.012819635
0.01403411 0.21825427 -0.012076822
0.019541118 0.21832743 -0.012212325
0.026976962 0.21851084 -0.012010057
0.0274738 0.21838184 -0.012185609
0.028386626 0.21851972 -0.012524765
0.029281918 0.21864459 -0.012147041
0.031759921 0.21862958 -0.012796623
0.032630268 0.21817335 -0.012257593
-0.023826633 0.21911941 -0.012898537
-0.022423729 0.21966358 -0.01273095
-0.021229476 0.21939331 -0.012682062
-0.020376094 0.21945983 -0.012766249
-0.0198163 0.21956147 -0.012887524
-0.00022503703 0.21931258 -0.012958049
0.011223307 0.21983951 -0.012818301
0.012475493 0.21945369 -0.012133832
0.020579275 0.21963087 -0.012834514
0.021303533 0.21971002 -0.012509311
0.022139378 0.21975975 -0.012275427
0.028333154 0.21919681 -0.012871865
0.029340118 0.21944028 -0.012577073
0.031903137 0.21996173 -0.012981899
0.03202847 0.21901533 -0.012715428
0.033104472 0.21976364 -0.012248216
-0.021432422 0.22027481 -0.012831325
-0.019543963 0.22002438 -0.012983003
0.0008024454 0.22001259 -0.012772202
0.0015975878 0.22077242 -0.012283688
0.0096185924 0.22074817 -0.012976669
0.010126214 0.22068232 -0.012472792
0.022714585 0.22025338 -0.012476183
0.024701424 0.22078003 -0.012078198
0.025765352 0.22060165 -0.012090534
0.026054544 0.22043297 -0.012113078
0.027891209 0.22056583 -0.012899786
0.028047815 0.22057813 -0.012975253
0.029489411 0.22037502 -0.01269262
0.032422885 0.22079313 -0.012832478
0.00193865 0.22114536 -0.012132864
0.0023807287 0.22155692 -0.012192873
0.0085892882 0.22156486 -0.012467068
0.0092365537 0.22109099 -0.012700825
0.023571281 0.22151323 -0.012668644
0.024687245 0.22122754 -0.012215592
0.025822714 0.22185853 -0.012380373
0.026557595 0.22164533 -0.012479636
0.027270675 0.22107179 -0.012660068
0.029822102 0.2212292 -0.012595952
0.030022796 0.22141299 -0.012301118
0.033077314 0.22165319 -0.012227435
0.0028163248 0.22202018 -0.012371236
0.0075942944 0.22255303 -0.012147052
0.0080790827 0.22201669 -0.012212924
0.02432704 0.22242364 -0.012784606
0.025222562 0.22233456 -0.012533143
0.02654393 0.2223758 -0.012618229
0.03028889 0.22287029 -0.012067661
0.032789905 0.22235641 -0.012605362
0.033004023 0.22211826 -0.012303927
0.003300553 0.22362351 -0.012380458
0.0072955028 0.22329511 -0.012479554
0.024985583 0.22318523 -0.012897519
0.025378348 0.22330254 -0.012886593
0.026447641 0.2234439 -0.012868281
0.030340232 0.22356084 -0.01219102
0.032700941 0.22376978 -0.012661295
0.0033867743 0.22421066 -0.012614776
0.007252269 0.22467831 -0.012413389
0.030322909 0.22436896 -0.012555042
0.032676309 0.22446439 -0.012790494
0.0032722696 0.22549552 -0.012559042
0.030304469 0.2258976 -0.012816686
0.032758638 0.22541703 -0.012403319
0.0030881925 0.22650063 -0.012389636
0.030363806 0.22636478 -0.012630275
0.033027671 0.22660671 -0.012815753
0.0029257797 0.22754955 -0.012364558
0.030295461 0.22743982 -0.012390072
0.033247493 0.22724721 -0.012315136
0.0027953933 0.22888419 -0.012454161
0.030141883 0.22824045 -0.012484289
0.033878867 0.22887523 -0.012289866
0.0027807963 0.22952358 -0.012454853
0.0073876493 0.22953796 -0.012676158
0.029769402 0.22960019 -0.012596151
0.033660807 0.2299946 -0.012201414
0.0026690275 0.2303907 -0.012823611
0.0073583843 0.23065099 -0.012382248
0.029542556 0.23048311 -0.012388205
0.033688504 0.23052232 -0.01258502
0.0027267151 0.23111834 -0.012276698
0.0073778643 0.23154238 -0.012587879
0.0292939 0.2313142 -0.012245928
0.033733111 0.23112297 -0.012842841
0.0024929834 0.23245543 -0.012325206
0.028722644 0.23252968 -0.012596712
0.034089383 0.23232837 -0.012586564
